ply
format ascii 1.0
element vertex 787
comment vertices
property float x
property float y
property float z
end_header
192.025009155273438 -10.2778291702270508 66.2757110595703125
42.1302413940429688 -9.45984840393066406 51.791717529296875
238.391616821289062 -10.4441490173339844 71.7669143676757812
-203.352447509765625 -10.6004838943481445 -33.8358573913574219
111.95196533203125 -14.1368894577026367 -50.299072265625
31.2405872344970703 -6.72004365921020508 117.36602783203125
-17.0713100433349609 -6.34503984451293945 114.498649597167969
62.2736244201660156 -11.9429912567138672 -8.05281639099121094
6.59404230117797852 -5.51040935516357422 140.64385986328125
-0.082545056939125061 -6.31178379058837891 118.784378051757812
-35.8809471130371094 -6.27314949035644531 110.985305786132812
77.1039199829101562 -15.620208740234375 -98.1868896484375
77.84405517578125 -8.20429039001464844 88.072479248046875
111.129074096679688 -17.6131210327148438 -140.600814819335938
18.2712211608886719 -15.7465486526489258 -115.140403747558594
-0.691316485404968262 -6.16140842437744141 120.348228454589844
-8.20050907135009766 -6.12514543533325195 119.025909423828125
-41.0495109558105469 -6.11986064910888672 111.526359558105469
36.0389938354492188 -16.5012969970703125 -134.18621826171875
59.4174728393554688 -15.7077770233154297 -109.929794311523438
76.7270278930664062 -14.828883171081543 -84.1128768920898438
59.2696990966796875 -12.7813138961791992 -36.8086891174316406
266.690673828125 -11.2235431671142578 49.3796501159667969
45.506805419921875 -15.6900358200073242 -115.000747680664062
263.106231689453125 -10.1933164596557617 72.534210205078125
-97.0789718627929688 -9.76895618438720703 -0.425772964954376221
-202.74658203125 -11.1057605743408203 -58.662109375
75.0906524658203125 -14.3395605087280273 -76.34918212890625
81.6512680053710938 -7.92488861083984375 84.5110397338867188
-136.691055297851562 -11.3234519958496094 -51.6942672729492188
4.01876592636108398 -5.33499717712402344 130.678359985351562
15.7592020034790039 -5.32746076583862305 133.464004516601562
17.5730342864990234 -15.6497917175292969 -125.682022094726562
-17.9254055023193359 -5.27221536636352539 126.331832885742188
-47.2716255187988281 -5.26653003692626953 119.641357421875
-188.777297973632812 -11.0131454467773438 -57.4431190490722656
244.020675659179688 -9.79947280883789062 72.3309173583984375
-142.527511596679688 -9.60538959503173828 -11.9706058502197266
79.2885284423828125 -8.2967529296875 71.7128829956054688
64.6762924194335938 -15.6371536254882812 -116.153305053710938
12.0768795013427734 -4.95151853561401367 139.905853271484375
212.595657348632812 -9.57096099853515625 70.0124435424804688
-211.591064453125 -10.7909173965454102 -59.7323799133300781
-246.00994873046875 -10.4168081283569336 -58.3112373352050781
-12.4542989730834961 -5.03933954238891602 130.196136474609375
277.3665771484375 -10.198857307434082 66.6475143432617188
-41.4992141723632812 -4.95090675354003906 124.501571655273438
-31.5478324890136719 -4.92678451538085938 127.061569213867188
40.0425491333007812 -15.601109504699707 -125.616134643554688
46.9242706298828125 -15.7600021362304688 -128.050048828125
2.73888731002807617 -4.82991790771484375 136.02899169921875
100.590858459472656 -15.6871929168701172 -114.126785278320312
81.4650115966796875 -7.49397897720336914 86.4500045776367188
6.02554225921630859 -11.2303953170776367 -25.1956882476806641
11.5430507659912109 -15.5857009887695312 -133.789276123046875
-5.96164321899414062 -11.340214729309082 -31.7126083374023438
31.0767669677734375 -16.3962268829345703 -150.288726806640625
-128.155120849609375 -9.27377605438232422 -8.16180133819580078
46.6026878356933594 -15.5716361999511719 -126.861961364746094
-0.425846010446548462 -8.81331348419189453 31.6909809112548828
-30.6843948364257812 -3.65122818946838379 154.337203979492188
163.728912353515625 -10.8946771621704102 15.7864208221435547
112.466117858886719 -13.2158842086791992 -54.3769149780273438
186.039413452148438 -10.8710517883300781 21.0393810272216797
-44.01837158203125 -4.41755771636962891 129.889328002929688
10.2003755569458008 -15.5546722412109375 -137.350784301757812
73.7676925659179688 -7.01663875579833984 91.1055984497070312
226.538116455078125 -10.7734289169311523 31.8493061065673828
29.1218147277832031 -3.27447319030761719 173.920761108398438
76.6068191528320312 -7.51890945434570312 77.840362548828125
41.4804496765136719 -8.97917461395263672 33.0077552795410156
28.2274837493896484 -15.5362701416015625 -134.847427368164062
-12.3968563079833984 -8.47424793243408203 32.0865211486816406
4.76075458526611328 -15.2085857391357422 -133.453659057617188
-22.0710353851318359 -11.0423774719238281 -35.9701194763183594
11.5807914733886719 -8.31063175201416016 40.0576667785644531
26.5239334106445312 -15.9765739440917969 -149.199050903320312
35.9706459045410156 -7.7675623893737793 58.7501029968261719
75.345855712890625 -13.0627260208129883 -66.2992172241210938
-13.2715721130371094 -8.358642578125 31.1879100799560547
-0.988670289516448975 -3.1184546947479248 165.201751708984375
29.6849822998046875 -5.37772035598754883 115.327278137207031
76.4852371215820312 -14.1425819396972656 -94.7284164428710938
-54.2810745239257812 -4.42563295364379883 118.861099243164062
-21.6049747467041016 -7.99226284027099609 35.9839019775390625
28.7565326690673828 -5.10986471176147461 119.632171630859375
268.20501708984375 -9.96051120758056641 49.3346443176269531
-42.5359039306640625 -6.50045585632324219 64.0605239868164062
33.8114128112792969 -7.93483209609985352 42.6642227172851562
-17.9818325042724609 -7.97278738021850586 28.8638725280761719
45.1319732666015625 -10.4208316802978516 -18.4385128021240234
35.1920700073242188 -7.80075502395629883 44.5693092346191406
279.501800537109375 -9.28312015533447266 63.4437751770019531
24.6412715911865234 -7.23150062561035156 55.1388931274414062
68.6456832885742188 -13.1898927688598633 -84.3604354858398438
30.5352210998535156 -10.4058732986450195 -23.3725719451904297
-24.4643802642822266 -7.90435695648193359 25.8317070007324219
104.387603759765625 -12.314356803894043 -55.40509033203125
-32.7091903686523438 -7.27680397033691406 39.08209228515625
82.629486083984375 -12.4231586456298828 -64.4842605590820312
-240.972244262695312 -8.77960491180419922 -48.8310050964355469
-186.730789184570312 -8.36823081970214844 -26.4406147003173828
11.7550067901611328 -2.33141732215881348 170.586135864257812
-2.98898601531982422 -13.1256103515625 -104.114349365234375
149.12127685546875 -9.89605617523193359 11.8874750137329102
-7.18827676773071289 -6.84099578857421875 52.3772010803222656
-43.2992897033691406 -2.60235691070556641 150.351226806640625
214.055404663085938 -9.85550308227539062 27.4207782745361328
4.19303655624389648 -10.3588142395019531 -34.3875808715820312
48.9472885131835938 -10.4119758605957031 -25.8049964904785156
75.9711532592773438 -13.5089569091796875 -97.577392578125
-11.8252849578857422 -6.70093202590942383 52.8779525756835938
31.7989406585693359 -10.3498010635375977 -28.9648170471191406
7.34760665893554688 -14.6299047470092773 -142.108383178710938
35.1490020751953125 -15.3301858901977539 -154.94049072265625
79.0468902587890625 -5.8785252571105957 92.4749526977539062
34.803131103515625 -15.3272771835327148 -155.539794921875
59.2445945739746094 -7.89449024200439453 36.6240310668945312
1.04514491558074951 -10.330052375793457 -38.1276130676269531
-22.8498401641845703 -6.49619674682617188 52.4729576110839844
3.99492907524108887 -2.05011367797851562 169.334335327148438
38.7333717346191406 -9.76467609405517578 -16.7636699676513672
-2.74360990524291992 -10.3149175643920898 -40.5920982360839844
-160.231185913085938 -9.44463825225830078 -55.544036865234375
16.7322425842285156 -15.1841392517089844 -159.737319946289062
-14.0910539627075195 -6.18804407119750977 57.9012794494628906
100.821304321289062 -11.9282503128051758 -61.2874221801757812
-54.2952728271484375 -3.0994715690612793 124.556259155273438
-243.808013916015625 -8.73947429656982422 -61.204803466796875
55.6220588684082031 -15.2606124877929688 -157.780288696289062
32.7796897888183594 -15.2590751647949219 -163.200424194335938
23.1490345001220703 -3.49657201766967773 128.890625
50.2287025451660156 -15.2438430786132812 -160.787689208984375
21.9816398620605469 -3.06516170501708984 137.8524169921875
-8.23014068603515625 -1.41277229785919189 171.745101928710938
142.87445068359375 -9.17743301391601562 10.5390071868896484
113.777381896972656 -13.8753852844238281 -114.45489501953125
-50.1075592041015625 -9.15179157257080078 -34.3671417236328125
10.0626392364501953 -1.24863231182098389 177.605575561523438
-53.3700408935546875 -1.2024078369140625 163.710113525390625
69.63043212890625 -7.27672386169433594 39.1635856628417969
-57.5636787414550781 -1.21250712871551514 161.666275024414062
-32.206329345703125 -5.82137918472290039 51.1937294006347656
41.2775688171386719 -10.2035179138183594 -42.1624794006347656
-31.9783515930175781 -5.68676090240478516 54.362884521484375
67.5168609619140625 -12.3975353240966797 -92.4417953491210938
-16.7248191833496094 -0.977784335613250732 174.657485961914062
-125.806861877441406 -8.92175483703613281 -50.4309577941894531
24.9717884063720703 -10.1868820190429688 -49.0671005249023438
30.1566104888916016 -10.1841459274291992 -48.1559867858886719
88.1425323486328125 -14.9762039184570312 -155.755645751953125
33.7876014709472656 -10.1773309707641602 -48.11102294921875
58.8853073120117188 -15.1587553024291992 -167.722152709960938
24.378448486328125 -4.22557735443115234 98.3834304809570312
70.5438613891601562 -12.6978607177734375 -105.178855895996094
205.178970336914062 -8.75320148468017578 24.7226619720458984
-17.8823471069335938 -0.533936023712158203 179.35760498046875
-42.1433334350585938 -4.26641559600830078 79.9286956787109375
-23.5477390289306641 -8.81344127655029297 -30.2057838439941406
-53.1370391845703125 -0.499123364686965942 171.632843017578125
130.549484252929688 -8.65981197357177734 7.3905792236328125
-47.3466415405273438 -3.21799015998840332 102.390472412109375
-40.9160270690917969 -0.22384469211101532 177.526596069335938
65.8865203857421875 -11.8679046630859375 -90.4717788696289062
-57.9523582458496094 -0.198976874351501465 173.7843017578125
-36.5386466979980469 -0.174394294619560242 179.08697509765625
-37.4525871276855469 -0.131296053528785706 179.358917236328125
37.7190780639648438 -15.089512825012207 -179.867584228515625
88.7630844116210938 -15.0729637145996094 -167.9437255859375
115.735755920410156 -10.1178646087646484 -38.7070655822753906
57.1489982604980469 -5.34453296661376953 67.1385879516601562
-44.7029266357421875 -3.14534783363342285 98.586029052734375
-3.28953862190246582 -10.1324424743652344 -68.4227066040039062
124.860183715820312 -8.32906246185302734 5.94625520706176758
-53.8313179016113281 0.294234007596969604 180.349166870117188
-7.97098016738891602 0.315880417823791504 191.146072387695312
-41.7262382507324219 0.318801552057266235 183.411575317382812
83.7166824340820312 -15.0466384887695312 -173.771240234375
-8.02430820465087891 0.354288846254348755 191.563522338867188
105.859077453613281 -9.44677543640136719 -30.0846290588378906
-56.4504432678222656 0.537972986698150635 182.364669799804688
256.759033203125 -7.87526607513427734 42.9212646484375
153.298675537109375 -8.141632080078125 12.2621431350708008
53.0825996398925781 -15.0182819366455078 -183.6287841796875
-258.905426025390625 -7.10305452346801758 -57.2939109802246094
-9.11831188201904297 0.686614573001861572 194.934555053710938
-142.741119384765625 -6.28774452209472656 -10.9763669967651367
-40.6091079711914062 0.703748822212219238 187.894195556640625
8.08413410186767578 0.342429518699645996 189.995361328125
74.4100112915039062 -10.3944482803344727 -65.5324630737304688
243.41400146484375 -6.3956904411315918 73.0141677856445312
-35.4276580810546875 0.850966751575469971 190.80615234375
79.0710983276367188 -14.9868927001953125 -180.928573608398438
-161.64202880859375 -6.21715354919433594 -16.7636871337890625
16.7746105194091797 -9.98668193817138672 -70.5603485107421875
111.85064697265625 -10.2487621307373047 -55.3714790344238281
-49.9330825805664062 1.02584505081176758 189.429855346679688
77.4687652587890625 -4.66709089279174805 75.71856689453125
81.2468719482421875 -14.9604597091674805 -183.263214111328125
-26.5517425537109375 1.26040911674499512 197.437759399414062
1.81002545356750488 -3.69562363624572754 78.9958114624023438
-3.58143091201782227 -2.91865992546081543 97.070953369140625
-57.2879409790039062 -0.25388219952583313 151.462417602539062
42.6055908203125 -14.9361896514892578 -194.703262329101562
-220.673019409179688 -6.26458883285522461 -37.7081985473632812
58.3841934204101562 -14.9328737258911133 -191.524261474609375
167.1357421875 -7.64568090438842773 15.5779829025268555
-11.7799301147460938 1.46385586261749268 203.113357543945312
102.380393981933594 -12.1368026733398438 -112.692428588867188
15.8808183670043945 -2.03698420524597168 120.947471618652344
92.1315155029296875 -13.3464689254760742 -145.6829833984375
-45.0230636596679688 1.52578592300415039 196.157089233398438
98.9866256713867188 -12.1193141937255859 -113.469581604003906
-32.951324462890625 -2.88768267631530762 87.560455322265625
50.3229713439941406 -14.8941488265991211 -197.465499877929688
-42.116943359375 1.79950153827667236 199.88897705078125
60.2713279724121094 -9.75422859191894531 -67.0114593505859375
-35.1660995483398438 -2.77273273468017578 86.1417694091796875
-40.1663131713867188 1.84804379940032959 200.881072998046875
-65.6346893310546875 -5.57001829147338867 8.72013759613037109
-91.0549163818359375 -7.42795419692993164 -43.9027481079101562
48.5558052062988281 -0.656356990337371826 157.806228637695312
62.2742042541503906 -7.38611412048339844 -9.21699237823486328
-58.4004440307617188 2.02140212059020996 198.622116088867188
85.3228607177734375 -13.6872282028198242 -162.885910034179688
118.179794311523438 -12.2920694351196289 -120.986785888671875
69.319122314453125 -14.8582973480224609 -196.865020751953125
-212.74224853515625 -6.89262151718139648 -62.0981292724609375
-46.2110176086425781 2.25325560569763184 204.024185180664062
-57.2382736206054688 0.448218286037445068 155.294113159179688
81.6367416381835938 -8.36212062835693359 -35.20166015625
3.55623173713684082 1.75752592086791992 200.539321899414062
-62.4797172546386719 2.2925717830657959 198.161346435546875
-42.9801521301269531 -1.60479819774627686 104.163299560546875
61.1826972961425781 -14.8118743896484375 -203.61279296875
-36.2141914367675781 2.56253361701965332 209.785202026367188
-17.9506072998046875 2.57919430732727051 214.173599243164062
-12.2951755523681641 2.61859416961669922 215.915924072265625
82.2464523315429688 -14.7977142333984375 -200.243896484375
62.9222145080566406 -14.7953329086303711 -204.950424194335938
156.571990966796875 -6.94784641265869141 12.6710500717163086
-26.9831504821777344 2.75779414176940918 214.093917846679688
-58.6490592956542969 2.76050043106079102 206.834930419921875
82.12811279296875 -14.7858257293701172 -201.517288208007812
231.471633911132812 -5.21823692321777344 73.044097900390625
47.9055023193359375 -9.79185676574707031 -84.317108154296875
32.6669731140136719 -9.79331398010253906 -88.0064010620117188
-208.812484741210938 -6.54140567779541016 -62.0131416320800781
22.7598667144775391 -13.3799982070922852 -181.609161376953125
49.0694847106933594 -14.7694864273071289 -210.85107421875
269.346649169921875 -6.44380998611450195 48.3968048095703125
30.6389961242675781 -9.78393936157226562 -90.4428176879882812
24.3074436187744141 -13.6027441024780273 -187.901077270507812
31.5035190582275391 -9.78045463562011719 -90.4788742065429688
53.4213790893554688 -9.78037071228027344 -85.4993743896484375
55.1895942687988281 0.103508889675140381 162.924407958984375
49.2726936340332031 -3.72864103317260742 65.2760086059570312
65.659149169921875 -14.7555732727050781 -208.492721557617188
93.9245223999023438 -14.4484901428222656 -194.674942016601562
-34.5003128051757812 -1.57055330276489258 99.0205535888671875
-131.418838500976562 -4.92096138000488281 -7.74077701568603516
4.63342618942260742 -1.09062516689300537 119.242652893066406
-10.0724802017211914 -1.08306562900543213 115.943672180175781
91.3342132568359375 -9.09949111938476562 -62.2633857727050781
58.5093765258789062 -9.75807094573974609 -86.3727874755859375
212.78179931640625 -6.67725181579589844 26.0460243225097656
75.9186935424804688 -14.7251129150390625 -209.324188232421875
85.5270233154296875 -14.7245635986328125 -207.170578002929688
-54.4138031005859375 0.664183676242828369 146.988861083984375
75.0785446166992188 -4.73448514938354492 41.0185394287109375
-144.662216186523438 -6.51660013198852539 -54.79815673828125
21.0002117156982422 -9.72248268127441406 -97.3248519897460938
46.3447151184082031 -14.7069692611694336 -218.023880004882812
-35.9997062683105469 -1.32833313941955566 98.906463623046875
46.6665687561035156 -9.70463371276855469 -93.2825851440429688
24.9381847381591797 -9.70374870300292969 -98.3862533569335938
-55.5628585815429688 3.60520243644714355 216.997146606445312
-18.1187667846679688 -0.552041709423065186 120.034156799316406
24.1322498321533203 -8.08705520629882812 -59.5911636352539062
92.2087860107421875 -14.6849832534790039 -209.766403198242188
-101.07110595703125 -6.39710044860839844 -46.3247032165527344
-42.0490951538085938 -0.711327493190765381 109.373626708984375
-31.08160400390625 3.78066802024841309 224.596099853515625
78.0302581787109375 -14.6746158599853516 -214.141311645507812
46.8489303588867188 -9.67841053009033203 -95.9942245483398438
32.0954856872558594 -14.1417055130004883 -211.907867431640625
41.9684829711914062 -9.66971397399902344 -98.0374374389648438
109.873184204101562 -8.28404808044433594 -48.1991348266601562
8.09344196319580078 -9.99300193786621094 -114.72991943359375
76.1620101928710938 -14.6552314758300781 -216.612899780273438
-192.247207641601562 -5.94578647613525391 -60.3919868469238281
123.108749389648438 -11.3161230087280273 -122.742355346679688
-64.5809555053710938 4.0695338249206543 219.86102294921875
0.31511610746383667 -6.22663211822509766 -24.2005405426025391
80.1474685668945312 -3.01351475715637207 74.8492202758789062
68.6916275024414062 -14.6240854263305664 -221.414871215820312
-41.9017868041992188 4.26774787902832031 227.434036254882812
68.4385986328125 -10.4729452133178711 -117.456779479980469
-39.5083770751953125 4.32799673080444336 228.652420043945312
17.7786273956298828 -9.62197589874267578 -108.623786926269531
-33.4655570983886719 4.41005277633666992 231.04901123046875
89.4748687744140625 -13.0222768783569336 -178.69830322265625
49.3923797607421875 -4.07837629318237305 35.2797470092773438
-18.3860626220703125 0.311360210180282593 129.825714111328125
81.0627593994140625 -14.5880422592163086 -222.340530395507812
21.4083251953125 -9.59374523162841797 -110.746772766113281
13.2604236602783203 -1.87626290321350098 80.9940414428710938
44.6914138793945312 -9.59190082550048828 -105.574188232421875
72.3624954223632812 -1.86772608757019043 94.4349365234375
-19.3009014129638672 -3.98505759239196777 19.7801170349121094
75.3089218139648438 -14.5800209045410156 -224.510482788085938
58.9745025634765625 -9.58405208587646484 -103.112205505371094
-64.2118606567382812 4.03660011291503906 210.459686279296875
-56.2095870971679688 1.94859194755554199 159.840774536132812
-166.13592529296875 -5.69457149505615234 -57.464996337890625
-2.17276978492736816 0.498052984476089478 135.665969848632812
-48.0399703979492188 0.881084561347961426 134.58984375
-4.49368095397949219 4.20880222320556641 228.065933227539062
258.109100341796875 -4.30833530426025391 74.2993545532226562
-7.35558462142944336 0.580349266529083252 135.193115234375
4.92849636077880859 1.88970565795898438 170.738510131835938
-50.4894676208496094 1.35527479648590088 144.548004150390625
-41.6374702453613281 0.061102006584405899 113.856048583984375
16.4226512908935547 -9.56689929962158203 -114.717231750488281
57.8241081237792969 1.21084320545196533 165.328872680664062
89.116973876953125 -12.8348026275634766 -180.857528686523438
85.9898147583007812 -12.4578628540039062 -172.312240600585938
-0.0669713243842124939 3.21950411796569824 201.453033447265625
-60.1402854919433594 3.04041075706481934 182.009902954101562
0.728881776332855225 3.1057889461517334 197.352676391601562
54.2028770446777344 -14.529754638671875 -234.800521850585938
47.6106796264648438 -9.53446865081787109 -110.9385986328125
90.3715896606445312 -3.72146391868591309 44.6888847351074219
-201.57354736328125 -5.2893061637878418 -62.0084609985351562
-25.7732963562011719 5.2012019157409668 241.711135864257812
-17.0635852813720703 0.87489926815032959 134.981124877929688
86.11083984375 -14.514073371887207 -229.125045776367188
106.557632446289062 -10.2530860900878906 -117.434906005859375
31.9640922546386719 -9.51750850677490234 -116.322052001953125
16.5208015441894531 -9.51113700866699219 -120.548202514648438
14.5200204849243164 -5.52003240585327148 -20.8928203582763672
66.7614669799804688 -7.77144098281860352 -65.7164154052734375
92.1955795288085938 -13.0615577697753906 -192.837142944335938
-41.2461967468261719 5.44202899932861328 240.845016479492188
43.5350990295410156 -7.56395626068115234 -66.727508544921875
55.4895439147949219 -6.78423261642456055 -44.4827384948730469
-19.8065872192382812 5.49779415130615234 246.40283203125
-38.95025634765625 5.51791763305664062 242.222793579101562
6.93916749954223633 -1.99465382099151611 63.4855613708496094
44.1424980163574219 -14.462432861328125 -242.453933715820312
1.04131209850311279 2.42463994026184082 171.333343505859375
-53.6319046020507812 5.71045923233032227 240.996612548828125
247.294845581054688 -3.70050239562988281 73.895660400390625
112.068222045898438 -7.62808656692504883 -57.0064239501953125
49.4418678283691406 -14.4560623168945312 -243.653945922851562
-30.2387409210205078 5.85865926742553711 248.038421630859375
96.5487594604492188 -14.4395732879638672 -234.534469604492188
48.1837348937988281 -14.4296340942382812 -246.624038696289062
-43.7068710327148438 6.10313796997070312 247.674606323242188
65.7259674072265625 -9.54129695892333984 -120.334877014160156
98.0622482299804688 -13.963932991027832 -224.539703369140625
50.9392776489257812 1.4586949348449707 151.612014770507812
67.83001708984375 -14.4168214797973633 -243.55517578125
-42.6597824096679688 6.31366157531738281 250.271697998046875
-0.451216965913772583 2.7544856071472168 170.375137329101562
62.6178932189941406 -9.41374492645263672 -120.862075805664062
48.5864715576171875 -9.41096878051757812 -125.454841613769531
41.4266777038574219 -9.4083404541015625 -127.331634521484375
-55.4677658081054688 6.46854066848754883 249.055755615234375
11.3130359649658203 -2.99260044097900391 26.7661094665527344
92.7899551391601562 -14.38909912109375 -240.71173095703125
-8.13521289825439453 5.73758745193481445 239.5323486328125
35.7573089599609375 -6.3331913948059082 -53.9892959594726562
111.770889282226562 -9.40633201599121094 -114.132545471191406
28.3417930603027344 -9.3676300048828125 -133.02203369140625
112.967681884765625 -9.32619094848632812 -112.6168212890625
-255.647705078125 -3.53987789154052734 -53.9021759033203125
-39.7357025146484375 6.89930152893066406 257.497344970703125
95.0304718017578125 -14.3418378829956055 -245.15948486328125
-67.3002700805664062 6.93126821517944336 251.461471557617188
-250.550765991210938 -3.90184712409973145 -63.5465049743652344
20.2480144500732422 -10.1346263885498047 -157.857589721679688
113.999931335449219 -6.54028415679931641 -46.2061500549316406
-169.362350463867188 -4.40158939361572266 -58.1795310974121094
-58.6941413879394531 4.17969036102294922 182.59246826171875
-8.61993598937988281 5.71115255355834961 232.333358764648438
-41.7530364990234375 2.08928132057189941 133.670761108398438
-33.2318344116210938 7.11857891082763672 261.447418212890625
68.8498001098632812 -1.48667585849761963 68.7664642333984375
-144.094680786132812 -2.67142558097839355 -10.3764791488647461
-142.7530517578125 -2.63487601280212402 -10.0326919555664062
-65.3337173461914062 6.00405216217041016 223.228866577148438
97.8971405029296875 -13.3502635955810547 -225.57122802734375
100.07794189453125 -14.2631797790527344 -248.128021240234375
86.2949447631835938 -14.288935661315918 -252.730560302734375
-47.458465576171875 7.51561546325683594 262.616058349609375
-26.3685302734375 3.3255915641784668 161.531524658203125
-65.1119308471679688 6.14584970474243164 222.2552490234375
81.9126739501953125 -14.2599506378173828 -256.782318115234375
245.885177612304688 -2.56467366218566895 73.6826705932617188
95.7191696166992188 -12.7780113220214844 -217.653457641601562
-25.1809196472167969 3.3253941535949707 158.751556396484375
101.614883422851562 -14.0444097518920898 -248.5537109375
63.3773841857910156 -14.2452983856201172 -262.497589111328125
-6.18258094787597656 4.63597679138183594 195.353424072265625
-59.8657493591308594 5.02374505996704102 192.7205810546875
-69.1436386108398438 7.78879928588867188 259.75634765625
84.8863372802734375 -14.2315082550048828 -258.88543701171875
-154.237899780273438 -2.24950504302978516 -13.1398067474365234
-14.7962274551391602 3.48427033424377441 162.430572509765625
42.372344970703125 2.30240583419799805 145.8643798828125
57.3386306762695312 -14.2261486053466797 -265.7537841796875
-65.0062332153320312 6.36926603317260742 222.97564697265625
-58.4753379821777344 8.01079368591308594 265.460845947265625
52.7204322814941406 -14.1899347305297852 -266.579010009765625
35.3032150268554688 -11.975621223449707 -215.323501586914062
35.2446327209472656 -5.60994672775268555 -55.7158851623535156
-24.7792282104492188 8.09345245361328125 274.215484619140625
67.7337188720703125 -9.96807765960693359 -158.665939331054688
77.8315582275390625 -10.3826837539672852 -166.817779541015625
-254.076614379882812 -2.74704384803771973 -52.8051872253417969
34.6523208618164062 -8.6998748779296875 -136.894210815429688
66.4651260375976562 -14.1870937347412109 -267.774932861328125
76.7049942016601562 -14.1860599517822266 -265.55816650390625
37.8904914855957031 2.50936579704284668 144.643096923828125
47.8243370056152344 -9.95725727081298828 -166.397079467773438
76.639801025390625 -10.1308660507202148 -164.323318481445312
52.2261161804199219 -9.95917606353759766 -165.6375732421875
87.5672531127929688 -6.15317249298095703 -62.5389862060546875
-42.3276023864746094 8.45782184600830078 274.33660888671875
41.1933860778808594 -8.55637073516845703 -133.814605712890625
87.7233352661132812 -11.5875091552734375 -199.522415161132812
-4.59285306930541992 -1.86206960678100586 23.2749214172363281
25.3779087066650391 -9.17084980010986328 -154.23297119140625
35.1188125610351562 3.90373516082763672 176.311141967773438
75.9556732177734375 -14.1630573272705078 -268.292999267578125
-41.1065864562988281 8.63698482513427734 276.6236572265625
49.6568946838378906 -9.91465187072753906 -168.521163940429688
52.1446342468261719 -9.91141796112060547 -168.231033325195312
-62.0768928527832031 8.67790889739990234 272.253631591796875
35.5597877502441406 -9.15707683563232422 -153.33880615234375
-232.930648803710938 -2.21921205520629883 -41.0009956359863281
-11.3369026184082031 6.94507408142089844 239.775543212890625
49.8372383117675781 -9.90568447113037109 -169.4052734375
78.1886215209960938 -0.588352024555206299 70.9141159057617188
-39.0647392272949219 3.50007295608520508 146.480575561523438
4.90607547760009766 -3.65981507301330566 -23.3078327178955078
18.8689041137695312 -3.65280032157897949 -20.0826873779296875
59.0276565551757812 -9.90071487426757812 -167.771255493164062
39.6489601135253906 -9.14249134063720703 -153.86444091796875
63.805419921875 -14.1374797821044922 -273.777313232421875
35.220428466796875 -11.4012231826782227 -211.979904174804688
80.8691558837890625 -4.82017612457275391 -36.2334442138671875
76.1069793701171875 0.592484593391418457 98.181488037109375
89.0101699829101562 -14.1313657760620117 -268.63812255859375
66.2836685180664062 -14.1284866333007812 -274.154937744140625
26.6989173889160156 -9.47939014434814453 -166.540451049804688
-26.4535369873046875 8.96850490570068359 283.70489501953125
-38.4872817993164062 4.31929779052734375 163.539077758789062
-67.2749710083007812 7.71229267120361328 241.673110961914062
-10.5309009552001953 6.24805450439453125 217.424163818359375
131.389892578125 -1.54138362407684326 54.2844161987304688
-18.2999019622802734 8.19925498962402344 263.70703125
-55.4290695190429688 5.39088964462280273 183.134613037109375
67.0881500244140625 -9.84583377838134766 -171.735458374023438
97.1145553588867188 -5.73146772384643555 -61.7356758117675781
-0.599323689937591553 3.20431995391845703 139.913803100585938
76.3850479125976562 -14.0839681625366211 -276.536895751953125
-51.26971435546875 9.33868026733398438 282.1370849609375
48.8728370666503906 -9.83742713928222656 -176.763442993164062
24.1606884002685547 0.77929002046585083 83.8462142944335938
94.9191055297851562 -12.2020368576049805 -225.887954711914062
105.292739868164062 -4.60181331634521484 -32.9661636352539062
-41.9357376098632812 -3.24262237548828125 -33.7603569030761719
34.8776893615722656 -9.05958175659179688 -163.747222900390625
-120.086769104003906 -1.27815735340118408 -4.17042684555053711
55.8169479370117188 1.07989835739135742 95.3910369873046875
104.081428527832031 -13.9923076629638672 -272.294219970703125
-40.8049697875976562 4.72952508926391602 163.957473754882812
103.424102783203125 -14.0306758880615234 -274.7137451171875
-210.271591186523438 -1.47332513332366943 -32.3731269836425781
92.2958526611328125 -3.05872249603271484 -3.23973703384399414
53.5539093017578125 -13.3613862991333008 -271.300384521484375
40.2470436096191406 -9.13526725769042969 -168.52191162109375
-58.6856613159179688 9.91674709320068359 286.8973388671875
100.966926574707031 -4.16463947296142578 -30.1559886932373047
-38.0930290222167969 10.0033254623413086 292.606201171875
67.6864700317382812 -9.76817226409912109 -179.70172119140625
98.5285720825195312 -12.4227485656738281 -240.390350341796875
33.1868629455566406 -0.944294929504394531 31.9518623352050781
-10.7369232177734375 5.28284645080566406 176.550689697265625
64.3304443359375 -13.9814386367797852 -290.054229736328125
-27.9517459869384766 5.34603548049926758 173.294326782226562
46.7500801086425781 -4.27212762832641602 -51.1531791687011719
71.5587692260742188 -13.9740028381347656 -289.17218017578125
37.4989204406738281 3.63928031921386719 144.626510620117188
60.1233406066894531 -0.781783998012542725 38.0966606140136719
-33.3521957397460938 5.50948572158813477 173.871994018554688
91.28045654296875 -13.9522371292114258 -286.933135986328125
41.0920448303222656 -11.2239398956298828 -230.441925048828125
-57.8221244812011719 6.77440166473388672 198.16552734375
-31.6460514068603516 5.73453140258789062 176.783004760742188
85.2395477294921875 -13.933527946472168 -290.285980224609375
-44.2964324951171875 10.7605714797973633 299.651153564453125
218.206161499023438 -2.49543499946594238 26.8439292907714844
-29.1267166137695312 5.8675684928894043 178.850692749023438
77.8441848754882812 -9.44788360595703125 -181.257781982421875
-34.5161476135253906 10.8780899047851562 303.216583251953125
-41.1383285522460938 10.8838644027709961 301.7572021484375
61.9612464904785156 0.697201788425445557 68.8290328979492188
75.558258056640625 0.666850686073303223 70.7198562622070312
-240.067581176757812 -0.978268742561340332 -44.6382102966308594
107.389411926269531 -13.8481283187866211 -288.05804443359375
70.1485748291015625 -3.62828588485717773 -40.07177734375
78.1606216430664062 -2.33688974380493164 -6.62184906005859375
98.0697097778320312 -13.8831338882446289 -292.625946044921875
40.9558792114257812 -8.88741397857666016 -180.406570434570312
75.1833724975585938 1.9792255163192749 99.5590362548828125
-43.0749053955078125 11.277735710144043 305.6844482421875
-31.0956058502197266 4.94299602508544922 149.229141235351562
70.6087570190429688 -9.62200450897216797 -194.3538818359375
-47.6260452270507812 11.4116754531860352 305.985260009765625
-46.0604400634765625 11.4296531677246094 306.548309326171875
-110.374008178710938 -2.14725565910339355 -49.3197822570800781
40.2098617553710938 -8.86013221740722656 -183.438079833984375
-56.6580848693847656 11.455805778503418 304.395782470703125
-50.2637252807617188 11.4749841690063477 306.083984375
-13.2627973556518555 4.53862285614013672 140.381805419921875
-120.931915283203125 -0.234566524624824524 -4.28922939300537109
102.689064025878906 -12.5067777633666992 -261.18438720703125
-51.8818931579589844 11.5331220626831055 306.36767578125
-21.4988346099853516 10.0761747360229492 276.486114501953125
-105.101425170898438 -2.05699896812438965 -48.1902084350585938
-229.292251586914062 -1.59180724620819092 -65.3027572631835938
-37.0351829528808594 6.65217781066894531 185.809555053710938
280.21826171875 -1.33401405811309814 56.8853225708007812
-47.9996871948242188 -1.96993184089660645 -35.1738433837890625
52.0156745910644531 -11.8510122299194336 -260.53668212890625
-33.0059013366699219 11.6903724670410156 310.533905029296875
49.2106857299804688 -3.95101308822631836 -63.4107322692871094
7.69349288940429688 0.00499640824273228645 26.2007865905761719
50.2039985656738281 -7.32238292694091797 -148.545654296875
-21.9890232086181641 6.92101478576660156 192.280410766601562
-50.0583457946777344 6.93573856353759766 186.05706787109375
-45.5473594665527344 6.93540859222412109 187.019989013671875
105.282760620117188 -13.6172304153442383 -294.92041015625
-209.364303588867188 -0.25452837347984314 -31.7990512847900391
-242.15545654296875 -1.23169267177581787 -64.797271728515625
52.0437774658203125 -9.16025161743164062 -197.05474853515625
39.5923690795898438 -9.2287750244140625 -202.110336303710938
72.6759872436523438 -9.55432510375976562 -202.855743408203125
98.1863479614257812 -13.7809228897094727 -303.283477783203125
97.3748931884765625 0.167690962553024292 46.6369094848632812
-18.0907363891601562 7.24129390716552734 196.760971069335938
-65.02935791015625 12.3960094451904297 313.177154541015625
-50.3202133178710938 7.42287492752075195 191.406478881835938
98.9446945190429688 -3.9750368595123291 -60.6946563720703125
38.9933624267578125 -9.59761238098144531 -215.869873046875
45.280029296875 -8.75454330444335938 -193.35986328125
106.861099243164062 -12.9238252639770508 -283.941162109375
90.6982574462890625 -13.7451868057250977 -308.791961669921875
78.529693603515625 1.5297170877456665 71.7537765502929688
86.5078048706054688 -13.7384185791015625 -310.4686279296875
-58.0951995849609375 12.5711755752563477 316.73370361328125
107.71246337890625 -3.89428186416625977 -58.694488525390625
-15.4627456665039062 7.92215538024902344 209.41339111328125
76.1044769287109375 -13.7296466827392578 -313.780670166015625
-228.03179931640625 -1.04594194889068604 -65.3610305786132812
-50.9859199523925781 12.7516050338745117 320.38897705078125
197.713027954101562 0.503980457782745361 69.4148406982421875
49.2516288757324219 4.99682998657226562 148.068313598632812
-36.7431602478027344 12.5434856414794922 317.54913330078125
88.0927200317382812 -10.1215505599975586 -223.936203002929688
67.3149032592773438 -9.45573520660400391 -212.579925537109375
-50.9879989624023438 12.9734745025634766 322.870849609375
-73.2583389282226562 12.7821826934814453 312.9234619140625
-36.68865966796875 12.9743204116821289 326.049652099609375
-57.9433708190917969 13.0228033065795898 321.823150634765625
102.779228210449219 -13.6857805252075195 -312.257904052734375
-71.9888229370117188 11.8238592147827148 287.8760986328125
75.3424453735351562 -9.43992710113525391 -212.528274536132812
85.0170974731445312 -13.6798086166381836 -316.978271484375
-15.4053497314453125 0.700773954391479492 20.9768810272216797
-23.0848846435546875 9.87306404113769531 249.124496459960938
-102.105514526367188 -1.17314565181732178 -47.7332916259765625
43.3358268737792969 -6.02733993530273438 -136.657455444335938
48.2779579162597656 -8.73666286468505859 -204.100982666015625
-190.891708374023438 -0.888272523880004883 -62.0668601989746094
44.2236557006835938 -9.86937046051025391 -234.06658935546875
-85.2989501953125 -1.09845983982086182 -43.9317283630371094
101.456367492675781 -11.7658004760742188 -268.831207275390625
-75.0755996704101562 13.2809257507324219 319.446533203125
-29.3817539215087891 8.48628330230712891 208.137649536132812
-69.6092453002929688 11.3449020385742188 270.157928466796875
102.151466369628906 0.917274653911590576 47.7668190002441406
71.0282363891601562 -9.38546943664550781 -219.100601196289062
-42.3532485961914062 8.68395805358886719 208.210800170898438
105.444122314453125 0.9742470383644104 48.5196609497070312
-44.0871772766113281 13.6235179901123047 331.732177734375
99.6944122314453125 -13.6217927932739258 -319.69268798828125
-18.7505989074707031 8.94207572937011719 219.618118286132812
86.280364990234375 -9.59382724761962891 -221.997207641601562
-116.982681274414062 -0.910335421562194824 -50.9170112609863281
75.0827560424804688 -13.6147546768188477 -326.007110595703125
-36.8755416870117188 13.6157999038696289 331.681121826171875
-51.8924980163574219 13.7470407485961914 331.317901611328125
13.8348770141601562 6.70362710952758789 169.125030517578125
-36.261505126953125 8.92963886260986328 211.488265991210938
63.0191764831542969 -12.2246208190917969 -297.525146484375
90.3189544677734375 -13.5857362747192383 -325.634033203125
78.7190017700195312 -9.02697849273681641 -214.001266479492188
-105.381988525390625 -0.738106191158294678 -48.4693183898925781
-209.782379150390625 -0.401504218578338623 -64.444000244140625
80.35107421875 -8.76021099090576172 -208.041183471679688
76.9847564697265625 -13.5709199905395508 -329.771148681640625
178.16448974609375 -0.699016332626342773 16.6155223846435547
-30.8863239288330078 12.6583576202392578 302.719207763671875
64.7677383422851562 -0.659505128860473633 -9.97666454315185547
-120.239151000976562 -0.591030895709991455 -51.6511802673339844
-20.7845745086669922 9.30206394195556641 219.464523315429688
-45.5161361694335938 14.3447675704956055 339.4732666015625
-40.4142951965332031 9.36240673065185547 215.356857299804688
77.9581375122070312 -13.5343685150146484 -333.4981689453125
-220.969650268554688 -0.108513116836547852 -65.6490478515625
88.667236328125 -13.5330514907836914 -331.548828125
-38.7375564575195312 1.46494066715240479 15.7021484375
90.4747543334960938 -9.86461639404296875 -239.792877197265625
72.01910400390625 -9.27910900115966797 -230.042648315429688
-51.550445556640625 -0.41289210319519043 -36.4832305908203125
264.522369384765625 1.12097465991973877 73.932220458984375
-50.0526885986328125 14.7250909805297852 342.6839599609375
-87.537353515625 1.60380780696868896 4.14855098724365234
29.8704566955566406 6.15399360656738281 145.010543823242188
94.30291748046875 -5.92456531524658203 -144.261642456054688
167.797454833984375 -0.276250064373016357 14.2623500823974609
-49.070343017578125 9.86461353302001953 218.984207153320312
-32.3717498779296875 12.6745004653930664 291.46905517578125
-57.8817596435546875 15.0029182434082031 343.91729736328125
110.556999206542969 -13.4729776382446289 -332.449310302734375
112.324714660644531 -12.8817319869995117 -317.5576171875
201.23480224609375 -0.166176959872245789 22.1472816467285156
-238.598114013671875 0.390545040369033813 -65.3990936279296875
230.76385498046875 1.64228212833404541 73.59716796875
41.0430183410644531 7.16712045669555664 168.640121459960938
106.272926330566406 -13.4606266021728516 -334.851806640625
51.3565101623535156 -0.146938294172286987 -13.1885433197021484
-48.5461883544921875 -0.1119566410779953 -35.5494422912597656
57.435699462890625 -8.44922351837158203 -222.617340087890625
-62.8099822998046875 15.3052940368652344 346.18115234375
-76.9100341796875 14.577296257019043 324.436187744140625
-49.9744911193847656 15.3980417251586914 350.22735595703125
107.612312316894531 -13.4178352355957031 -339.06536865234375
66.5320816040039062 -8.76013660430908203 -232.093276977539062
77.6437606811523438 -9.18549251556396484 -240.634521484375
-115.242919921875 2.05896592140197754 -2.7173771858215332
45.8002471923828125 7.7219390869140625 175.98345947265625
68.879486083984375 -4.47228622436523438 -125.3892822265625
51.6016120910644531 -5.12404727935791016 -146.24188232421875
-62.5829086303710938 11.4466533660888672 243.416168212890625
-0.467282772064208984 7.67490530014038086 162.409698486328125
-62.7554512023925781 15.8049850463867188 351.843475341796875
70.6309432983398438 -4.39182376861572266 -124.660209655761719
48.686737060546875 -4.59553241729736328 -135.872802734375
107.905158996582031 -11.7323951721191406 -303.6514892578125
-40.9447784423828125 11.0797328948974609 234.449264526367188
106.95697021484375 -13.3146486282348633 -345.46649169921875
91.1715927124023438 -13.338191032409668 -349.766082763671875
66.7363052368164062 -1.60036730766296387 -61.2416839599609375
-77.6068878173828125 2.45908260345458984 6.62996196746826172
-30.0840511322021484 12.3440351486206055 265.768402099609375
25.3732776641845703 4.05904960632324219 70.4160919189453125
101.172500610351562 0.526776254177093506 -1.6927332878112793
-65.0308074951171875 12.3774290084838867 257.360870361328125
-76.1532135009765625 15.0395088195800781 321.538177490234375
-41.9414291381835938 11.4975824356079102 240.185409545898438
72.920501708984375 -1.54273116588592529 -61.3659744262695312
-65.9645843505859375 12.6026630401611328 260.78472900390625
91.5813980102539062 -9.30377101898193359 -253.584732055664062
101.86541748046875 -13.163212776184082 -348.828826904296875
70.2623138427734375 -8.61892509460449219 -242.001998901367188
-35.300994873046875 11.7302789688110352 243.028350830078125
83.6240386962890625 4.06276130676269531 77.3160858154296875
118.785499572753906 -4.27513837814331055 -124.104164123535156
239.361846923828125 2.4893805980682373 73.27752685546875
-17.9311275482177734 8.01444911956787109 151.636642456054688
-54.5375633239746094 11.906097412109375 240.590438842773438
59.4254264831542969 -8.34871673583984375 -242.153533935546875
81.5912246704101562 -12.6697416305541992 -345.63409423828125
13.8439579010009766 8.41589546203613281 168.253387451171875
-53.4867362976074219 11.9819478988647461 241.68414306640625
148.158279418945312 2.84613251686096191 58.3116035461425781
-37.5245819091796875 14.4231042861938477 305.93621826171875
48.7785491943359375 2.88466238975524902 35.6992950439453125
98.9412307739257812 -10.1312246322631836 -279.947052001953125
241.833160400390625 2.65968990325927734 73.1637649536132812
-57.8942146301269531 12.1867504119873047 243.399200439453125
78.5615768432617188 5.10617733001708984 96.6413192749023438
210.22552490234375 1.0058434009552002 23.8765888214111328
56.4064674377441406 -3.76647853851318359 -132.36541748046875
-49.0249366760253906 12.3333415985107422 246.64947509765625
4.81750345230102539 7.7120361328125 142.871246337890625
-210.26983642578125 2.79304194450378418 -31.4344520568847656
93.2918777465820312 -9.18373298645019531 -264.124542236328125
71.9698944091796875 -4.24220848083496094 -146.045303344726562
107.899627685546875 -0.993867278099060059 -56.9150543212890625
108.596328735351562 -0.20077100396156311 -38.2935333251953125
26.6256313323974609 5.19302272796630859 76.009979248046875
-59.6363105773925781 13.086430549621582 253.461868286132812
-247.04608154296875 2.82062864303588867 -48.1436233520507812
64.7447662353515625 -8.17719650268554688 -252.681549072265625
88.574462890625 -8.49764251708984375 -255.493194580078125
50.8588333129882812 8.58975028991699219 164.800735473632812
-32.8128204345703125 13.1974191665649414 260.72125244140625
-20.2488021850585938 1.5298992395401001 -29.9182071685791016
-53.1933250427246094 17.2568645477294922 357.1925048828125
10.5982952117919922 8.17515182495117188 143.463180541992188
-46.6424980163574219 13.4708194732666016 259.891693115234375
63.0685386657714844 4.95234489440917969 71.1636581420898438
110.838615417480469 -11.8261489868164062 -339.32025146484375
69.2820968627929688 5.9311833381652832 97.006927490234375
-54.465087890625 13.4912281036376953 258.322021484375
-75.9826736450195312 17.1553859710693359 344.718719482421875
228.3302001953125 3.57294702529907227 73.5577163696289062
64.578155517578125 -9.53262710571289062 -293.328948974609375
84.8339309692382812 -8.65322780609130859 -266.773651123046875
106.53497314453125 0.535476386547088623 -31.9673557281494141
-137.999664306640625 3.73213505744934082 -8.29657363891601562
-74.0887527465820312 17.4078216552734375 349.612213134765625
91.6950302124023438 -8.57363796234130859 -265.62841796875
-40.5510826110839844 15.5693426132202148 310.16693115234375
98.1988372802734375 -9.42227649688720703 -286.14544677734375
188.901046752929688 1.92561471462249756 18.843597412109375
-51.6766700744628906 17.5061454772949219 354.2742919921875
-131.215057373046875 1.98858273029327393 -54.3254241943359375
104.055099487304688 0.192797183990478516 -45.8299674987792969
63.9527168273925781 -8.05762195587158203 -262.2515869140625
93.705902099609375 -0.243132218718528748 -59.2140388488769531
66.5494766235351562 -9.51024341583251953 -298.9879150390625
-68.9173583984375 15.3014297485351562 292.655548095703125
106.411827087402344 -11.6277093887329102 -343.359649658203125
264.615142822265625 2.54322028160095215 46.8653755187988281
110.414710998535156 -3.47221279144287109 -141.26953125
63.4429206848144531 -8.26816844940185547 -272.884552001953125
-63.5788650512695312 17.9035072326660156 354.220550537109375
113.180953979492188 -2.33656787872314453 -114.130683898925781
-56.2869949340820312 14.4686517715454102 268.837554931640625
-39.3644447326660156 15.3542490005493164 294.9119873046875
66.1396331787109375 4.2265167236328125 39.6392097473144531
43.739288330078125 5.68169116973876953 70.7897872924804688
92.116973876953125 -8.44666385650634766 -273.31365966796875
-56.7811813354492188 17.8793315887451172 352.34332275390625
81.508453369140625 -10.7026901245117188 -334.678436279296875
107.202285766601562 -10.7748661041259766 -330.8360595703125
-45.6591835021972656 14.7141475677490234 274.0296630859375
-109.016754150390625 4.3629603385925293 -1.088287353515625
-45.0208244323730469 4.39450263977050781 14.2062664031982422
-74.0062103271484375 17.0426177978515625 324.84576416015625
104.435295104980469 -9.92691135406494141 -311.8255615234375
54.9940834045410156 -2.45458626747131348 -136.715774536132812
6.15648317337036133 9.96757411956787109 163.409774780273438
214.88037109375 4.42121171951293945 72.0531845092773438
-238.948806762695312 3.12751102447509766 -65.6926193237304688
242.427154541015625 4.33035087585449219 72.9165267944335938
198.891891479492188 2.71457648277282715 21.0734996795654297
-45.5467681884765625 17.3902263641357422 332.719268798828125
58.4877395629882812 -2.48642301559448242 -142.92547607421875
-73.5593338012695312 17.4042167663574219 325.834503173828125
-206.597915649414062 3.07797074317932129 -65.9336776733398438
-67.2280807495117188 15.982752799987793 290.15380859375
-59.1326522827148438 2.8400120735168457 -38.3003005981445312
-71.4433441162109375 17.90130615234375 337.029388427734375
92.6176834106445312 -10.3861818313598633 -338.3331298828125
47.7264213562011719 10.4266738891601562 173.893951416015625
-178.94970703125 3.07671475410461426 -63.1855888366699219
89.3726730346679688 -10.2061004638671875 -336.594329833984375
-52.3258247375488281 17.9836273193359375 338.629180908203125
-64.8491973876953125 18.2705135345458984 341.809112548828125
-57.2389297485351562 18.2458572387695312 342.571258544921875
43.8000144958496094 9.94434738159179688 156.702178955078125
-63.2369346618652344 16.1630592346191406 286.197296142578125
4.21979856491088867 10.740138053894043 161.383270263671875
-46.00897216796875 16.5057735443115234 293.9952392578125
153.773117065429688 3.4030613899230957 10.4196205139160156
-244.613265991210938 4.77810430526733398 -46.7824783325195312
-196.13861083984375 3.58469319343566895 -66.0723419189453125
-47.2270736694335938 16.5947113037109375 294.7098388671875
89.9126510620117188 -9.59860515594482422 -331.725555419921875
